# .PCD v0.7 - Point Cloud Data file format
VERSION 0.7
FIELDS x y z
SIZE 4 4 4
TYPE F F F
COUNT 1 1 1
WIDTH 1461
HEIGHT 1
VIEWPOINT 0 0 0 1 0 0 0
POINTS 1461
DATA ascii
-0.17248012 0.17048813 1.1051912
-0.1651098 0.17208804 1.1048019
-0.15521817 0.17416543 1.1053356
-0.14596522 0.17616089 1.1050454
-0.13476545 0.1786028 1.1042919
-0.12371045 0.18093939 1.1046625
-0.11424035 0.1829807 1.1043801
-0.10432795 0.18506254 1.1049134
-0.094405957 0.18714641 1.1054469
-0.085492149 0.18911238 1.1045069
-0.080656894 0.19019096 1.1038139
-0.074759491 0.19137706 1.1049246
-0.064823128 0.19346398 1.1054583
-0.055120844 0.19555373 1.1051933
0.0074783894 0.20891014 1.1053993
0.010939789 0.20984504 1.1024417
0.016556704 0.21083781 1.1055696
0.025772423 0.21285644 1.1048086
0.035205524 0.21488981 1.1045256
0.045191374 0.21698721 1.1050583
0.055100493 0.21912019 1.1048057
0.064764939 0.22120212 1.1045355
0.074765138 0.22330259 1.1050682
0.084430516 0.22538437 1.104803
0.094327308 0.22751506 1.1045456
0.10267118 0.22926749 1.1049924
0.10768323 0.23032084 1.1052502
0.11436608 0.23172419 1.1056116
0.12378877 0.23375498 1.1053336
0.13392158 0.23593521 1.1050887
0.14452413 0.23821382 1.1048737
0.15012017 0.23959577 1.1020504
-0.24408092 0.15449822 1.1157334
-0.23578201 0.15629436 1.1153759
-0.22501338 0.15867014 1.1142299
-0.2142366 0.16092525 1.1149341
-0.20427816 0.16301627 1.1154776
-0.1943621 0.16520521 1.1144031
-0.18439871 0.1672973 1.1149459
-0.17526647 0.16922547 1.1152833
-0.17022122 0.17022122 1.1165197
-0.16484551 0.17145623 1.1152066
-0.15455776 0.17366998 1.1149579
-0.14457001 0.17576723 1.1155012
-0.13523476 0.17778061 1.1152058
-0.12744458 0.1796295 1.1124078
-0.12198287 0.18045704 1.1175326
-0.11420377 0.18230329 1.1147391
-0.10488852 0.18431276 1.1144384
-0.094881229 0.1864142 1.1149812
-0.084613964 0.18862323 1.1147373
-0.079349235 0.1898355 1.1134098
-0.074211299 0.19085035 1.1146574
-0.065045707 0.19278578 1.1149924
-0.055014014 0.19489241 1.1155359
0.0070422888 0.2081898 1.1148809
0.012556672 0.20945308 1.1135879
0.018126927 0.21046481 1.1162784
0.02447924 0.21190423 1.1150274
0.035198566 0.21420801 1.1148084
0.04527742 0.21632464 1.1153513
0.05600189 0.21862982 1.115128
0.061247908 0.21989003 1.1130145
0.067069061 0.22098899 1.115195
0.075746089 0.22288181 1.1145953
0.085842751 0.22500227 1.1151377
0.095832847 0.22715285 1.1148804
0.1047821 0.22907457 1.114723
0.10954156 0.23013777 1.1140169
0.11568662 0.23137532 1.1151478
0.12580775 0.23350096 1.1156908
0.13540761 0.23562233 1.1146157
0.1446338 0.23757048 1.1149522
-0.2450256 0.15367278 1.1251618
-0.23582329 0.15563735 1.1251746
-0.2254311 0.15787338 1.1249262
-0.21740852 0.15950353 1.1261857
-0.21246552 0.16086735 1.1215281
-0.20571649 0.16206688 1.1251861
-0.19556859 0.16425155 1.1249247
-0.18566586 0.16638508 1.1246449
-0.17560661 0.16849698 1.1251978
-0.16879989 0.16981755 1.1272117
-0.16390619 0.17100768 1.125021
-0.15556778 0.17281269 1.1246568
-0.14549361 0.17492776 1.1252097
-0.13540952 0.17704493 1.1257631
-0.12635501 0.17908688 1.1241293
-0.12102446 0.18001117 1.1273676
-0.11537749 0.18135917 1.1252218
-0.10453255 0.18369018 1.1249996
-0.094423272 0.18581299 1.1255488
-0.085258223 0.18779127 1.1252345
-0.078016669 0.18947412 1.1231756
-0.072740547 0.19047336 1.1251053
-0.065269642 0.19209628 1.1246927
-0.055150751 0.19422092 1.1252457
0.0070931823 0.20766787 1.1229354
0.01420692 0.20905352 1.1249563
0.019286448 0.21012077 1.1252215
0.025026673 0.21137942 1.1247271
0.035190251 0.21351351 1.1252795
0.045363817 0.21564968 1.1258326
0.054156501 0.21763566 1.1241982
0.061911341 0.21923161 1.1251087
0.067005008 0.22030176 1.125376
0.074660622 0.22196245 1.1249882
0.085227408 0.22423507 1.1247476
0.094472677 0.2261229 1.1260582
0.10453062 0.22834191 1.1249858
0.1103323 0.22977461 1.1220586
0.11633646 0.23084256 1.1252986
0.125544 0.23280819 1.1253113
0.13522178 0.23494749 1.1242167
0.14401945 0.23682177 1.1242864
-0.24430169 0.15319793 1.1346778
-0.2350256 0.15511169 1.1356972
-0.22624926 0.15704277 1.1348412
-0.21728724 0.15886858 1.1361763
-0.21230111 0.16024712 1.1314359
-0.20549171 0.1614552 1.1351587
-0.19534819 0.1635844 1.135722
-0.18526359 0.16581197 1.1346081
-0.17511494 0.1679423 1.1351707
-0.16735059 0.16940613 1.1381108
-0.16256192 0.17074339 1.133357
-0.15489887 0.17229648 1.1346201
-0.14473505 0.17443007 1.1351829
-0.13456118 0.17656577 1.1357461
-0.12453095 0.17878169 1.1346326
-0.11817974 0.17983873 1.1391596
-0.1145227 0.18099305 1.133517
-0.10586555 0.18270002 1.1356643
-0.095864199 0.18490978 1.1345509
-0.08567173 0.18704946 1.1351136
-0.075469159 0.1891913 1.1356767
-0.070347086 0.19065079 1.1301508
-0.063800685 0.19175093 1.1346568
-0.054308452 0.19368879 1.1360098
0.0078451624 0.20706636 1.134456
0.015708737 0.20866267 1.1357118
0.021505531 0.20993495 1.1351944
0.026402343 0.21102814 1.1344781
0.035839301 0.21299846 1.1351596
0.045287885 0.21497111 1.1358445
0.054241195 0.21697123 1.1345143
0.063695505 0.21894515 1.1351986
0.068568863 0.22003441 1.1344661
0.074784435 0.22128423 1.1356391
0.08460588 0.22345549 1.1345249
0.094887577 0.22561415 1.1350871
0.10517943 0.22777496 1.1356498
0.11214429 0.22940052 1.1335629
0.11668634 0.23030043 1.1346231
0.12354984 0.23174106 1.135004
0.13468625 0.23413356 1.1347905
0.14227544 0.23576345 1.1346534
-0.25032586 0.15143168 1.1419282
-0.24441989 0.15250178 1.1448202
-0.23506093 0.15443203 1.145858
-0.22570102 0.15654312 1.1441648
-0.21548706 0.15868677 1.1447369
-0.20953807 0.15999213 1.1442114
-0.20440789 0.16100065 1.1455295
-0.19522724 0.16299537 1.1450174
-0.18485413 0.16522862 1.1447492
-0.17461453 0.1673777 1.145322
-0.16637528 0.16912574 1.1454989
-0.16104634 0.17033833 1.1443737
-0.15508477 0.1716003 1.1445445
-0.14567409 0.17356433 1.1452388
-0.13531092 0.17579576 1.1449656
-0.12529317 0.17795438 1.1446784
-0.11810942 0.17923746 1.1484764
-0.11348189 0.18054584 1.1436386
-0.10474537 0.18226719 1.1458244
-0.094655685 0.18449713 1.1446911
-0.085296281 0.18649524 1.1447042
-0.075797305 0.18845546 1.1457411
-0.069425449 0.18962474 1.1486382
-0.064999297 0.19088998 1.1438019
-0.055439059 0.19284068 1.1451806
0.0086157555 0.20645361 1.1462059
0.015492747 0.20800917 1.1448926
0.022714023 0.20958099 1.1444458
0.027880322 0.21066479 1.1447413
0.03576098 0.21228579 1.1456797
0.044408478 0.21419029 1.1448081
0.055066854 0.21648312 1.1445583
0.06542474 0.21865739 1.1451303
0.071246743 0.2199356 1.1446041
0.076425485 0.22102232 1.1448959
0.08569777 0.22302423 1.1445688
0.095255055 0.22501931 1.1452652
0.10472473 0.2270184 1.1456183
0.11378662 0.22902052 1.1446083
0.11866774 0.23011224 1.1438636
0.1249871 0.23138297 1.1450562
0.13538447 0.23356564 1.1456289
0.14235346 0.23519462 1.1435033
-0.2540589 0.14950791 1.1589575
-0.25133878 0.15059604 1.1512904
-0.24454027 0.15179306 1.1551456
-0.23552483 0.15371369 1.1552197
-0.22565256 0.15587126 1.1544784
-0.21534647 0.15803389 1.155061
-0.20758836 0.1596048 1.1563623
-0.20167443 0.16113228 1.1523654
-0.19475906 0.16246872 1.1544907
-0.18443727 0.1646347 1.1550733
-0.17495814 0.16661233 1.1557831
-0.16558547 0.16870522 1.1544062
-0.15950055 0.16992544 1.155607
-0.15439956 0.17106399 1.154865
-0.14490354 0.1730454 1.1555718
-0.13469064 0.17530297 1.1544187
-0.12521949 0.1773019 1.1547804
-0.11655287 0.1790978 1.1556135
-0.11147352 0.18023288 1.1548545
-0.10525765 0.181537 1.1552089
-0.095157869 0.18371348 1.1549166
-0.084782012 0.18589099 1.1554996
-0.075005367 0.18802842 1.154754
-0.068454802 0.18937425 1.1555589
-0.063506864 0.1905272 1.1541048
-0.055591002 0.19213124 1.1554148
0.0083527276 0.20566547 1.1572696
0.016316688 0.2075637 1.154286
0.025005637 0.2093876 1.1547668
0.033699896 0.21121205 1.1552562
0.044803891 0.21359907 1.1550213
0.055909932 0.2159868 1.1547818
0.065612212 0.21807989 1.1544646
0.071950674 0.2193346 1.1559607
0.077458657 0.22056586 1.155131
0.085072391 0.2222207 1.1546959
0.095537193 0.22441714 1.1552781
0.10523275 0.22650881 1.1549605
0.11597222 0.22881925 1.1547062
0.12574157 0.23083588 1.1557615
0.13439605 0.23274288 1.1548744
0.14163344 0.23431864 1.1544197
-0.25243795 0.14949836 1.1643358
-0.24482682 0.15109567 1.1647631
-0.23512928 0.15317675 1.164614
-0.22560322 0.15518714 1.1649796
-0.21538997 0.15738854 1.164677
-0.20737433 0.15895362 1.1668979
-0.20229368 0.16036929 1.161901
-0.19442873 0.16184463 1.164992
-0.18487433 0.16383751 1.165714
-0.17554088 0.16586602 1.1651838
-0.16498981 0.16813791 1.1649059
-0.15699446 0.16964073 1.1680022
-0.15212496 0.17101194 1.1629959
-0.14505596 0.17237872 1.165158
-0.13555525 0.17443027 1.1648198
-0.12511094 0.17662175 1.1654128
-0.11457025 0.17889175 1.16513
-0.10527302 0.18091199 1.164608
-0.095666535 0.18291622 1.1653267
-0.085133776 0.18518454 1.1650441
-0.074953169 0.18737859 1.1647466
-0.066226661 0.18920951 1.1652441
-0.061985258 0.19015816 1.1645973
-0.055701636 0.19147637 1.1649578
0.0084153879 0.20510454 1.1659503
0.014071654 0.20644109 1.1640071
0.023822455 0.20845269 1.1650788
0.030558288 0.20969309 1.1680741
0.035108633 0.21085563 1.1651911
0.045207568 0.21299811 1.1654081
0.053997509 0.21493468 1.1645113
0.063789316 0.21695495 1.165584
0.073554493 0.21909072 1.164825
0.07897789 0.22008505 1.1673031
0.084430486 0.22140171 1.1650029
0.093957968 0.22343561 1.1650159
0.10504056 0.22584188 1.1644212
0.11463636 0.22779831 1.1658258
0.12150597 0.22935443 1.164481
0.12733604 0.23046367 1.1665349
0.13540205 0.23238583 1.1635193
0.14089397 0.23342338 1.165565
-0.25320527 0.14867002 1.1743809
-0.24741693 0.14972579 1.1771096
-0.24211903 0.15119365 1.1720251
-0.23516648 0.15246187 1.1753013
-0.22573324 0.1545123 1.1747621
-0.21508336 0.15680559 1.1744798
-0.20459323 0.15900619 1.1750827
-0.19499661 0.16107878 1.174736
-0.18554345 0.16306196 1.1752777
-0.17489861 0.16535419 1.1749951
-0.16425911 0.16764563 1.1747077
-0.1572499 0.16893831 1.1777968
-0.15233861 0.17032398 1.1727064
-0.1452084 0.17170125 1.1749076
-0.13467856 0.17391033 1.1755109
-0.12509906 0.17597929 1.175164
-0.11552265 0.17804737 1.1748198
-0.10732641 0.17958963 1.1779691
-0.10263024 0.18092947 1.1728773
-0.094352052 0.18254815 1.1751354
-0.084984146 0.18458408 1.1746044
-0.075282522 0.18660779 1.1753354
-0.064664312 0.1888947 1.1750479
-0.055310525 0.19092759 1.1745169
0.0095456066 0.20470022 1.1757104
0.014624817 0.20583582 1.1749424
0.024372296 0.20792814 1.1747823
0.031878032 0.20932677 1.1778715
0.037061464 0.21070796 1.1737274
0.045228094 0.21236248 1.1750818
0.055084974 0.21451864 1.1743103
0.064672403 0.21650103 1.1752957
0.074903972 0.21870624 1.1749928
0.081829727 0.2199838 1.1780392
0.085306019 0.22094724 1.1746988
0.094352223 0.22284563 1.1752067
0.10457536 0.22504902 1.1749038
0.11523341 0.22728537 1.1755065
0.123965 0.22921491 1.174528
0.12829642 0.23008533 1.1753536
0.13424224 0.23139085 1.1748146
-0.25457326 0.14769557 1.184695
-0.24756847 0.14897117 1.1880283
-0.24222098 0.15045588 1.1828493
-0.23520157 0.15180713 1.185086
-0.22551177 0.15389983 1.1847361
-0.21493536 0.15611817 1.1853496
-0.20525186 0.15820971 1.1849968
-0.19813596 0.15958165 1.1872331
-0.19300736 0.16101913 1.1820611
-0.18498053 0.16252185 1.1852604
-0.17424561 0.16483399 1.1849678
-0.16476296 0.16689503 1.184428
-0.15503021 0.16892457 1.1851712
-0.14430349 0.17123497 1.1848787
-0.13474734 0.17323935 1.1854323
-0.12508439 0.17532633 1.1850822
-0.11436585 0.17763497 1.1847897
-0.10716397 0.17896529 1.1879323
-0.10242893 0.18031913 1.182754
-0.095143057 0.18172713 1.1849931
-0.084432736 0.18403402 1.1847006
-0.07485006 0.18604407 1.185254
-0.065206252 0.18812698 1.184904
-0.057829406 0.18955481 1.1871371
-0.053312436 0.19086161 1.1819658
0.0096183587 0.20412295 1.1846712
0.014962043 0.2052435 1.184984
0.024577124 0.20732015 1.1846336
0.033703085 0.20917477 1.1860607
0.038440105 0.21034804 1.1836181
0.044890296 0.21164125 1.1848934
0.054495793 0.21371587 1.184543
0.065215416 0.21596469 1.1851559
0.074813962 0.21803801 1.1848028
0.08245711 0.21952248 1.1870377
0.087498337 0.22087774 1.1828263
0.09514416 0.22236253 1.1850652
0.10473306 0.22443379 1.1847122
0.11440586 0.2264632 1.1852624
0.12506832 0.22875941 1.1849746
0.13464758 0.2308286 1.1846215
-0.25432402 0.14709559 1.1945701
-0.2448353 0.14905471 1.1955905
-0.23523521 0.15114145 1.1950408
-0.22528648 0.15327723 1.1948756
-0.2146194 0.15551426 1.1954998
-0.20503397 0.15759787 1.1949502
-0.19874635 0.15878177 1.1973543
-0.1926527 0.16036649 1.1930722
-0.18440811 0.16197279 1.1954091
-0.17483728 0.16405331 1.1948597
-0.1648984 0.16618699 1.1946945
-0.15527277 0.1682056 1.1952572
-0.14799991 0.16960846 1.1975323
-0.14304735 0.17101431 1.1922703
-0.13471124 0.17264038 1.1946038
-0.12507211 0.1746619 1.1951666
-0.1153327 0.17676561 1.1948106
-0.10452864 0.17909279 1.1945133
-0.094876021 0.18111721 1.195076
-0.08514636 0.18321882 1.19472
-0.074407481 0.18547118 1.1953441
-0.064684525 0.18757153 1.1949853
-0.057240937 0.18901092 1.1972593
-0.053720944 0.19017527 1.1910229
0.0096922284 0.20353679 1.1937696
0.015308281 0.2046413 1.1952043
0.02478436 0.20670199 1.1946464
0.035579961 0.20896637 1.1952695
0.045494612 0.21109423 1.1951122
0.05495587 0.21315181 1.1945541
0.065766379 0.21541937 1.1951773
0.075676292 0.21754625 1.19502
0.083091684 0.21905367 1.1961726
0.088169277 0.22042099 1.1918963
0.094902702 0.22162177 1.1954831
0.10489941 0.2238093 1.1946888
0.11528492 0.2260484 1.19437
0.12508991 0.22807491 1.1953908
0.13145182 0.22950038 1.1943817
0.1356827 0.23044752 1.1937236
-0.26041511 0.14491719 1.2078351
-0.25496778 0.14628451 1.2047532
-0.24458185 0.14848736 1.2049855
-0.23887514 0.1494333 1.2091111
-0.23346977 0.15094249 1.2037492
-0.22541441 0.15256865 1.2051747
-0.21412854 0.15499771 1.2048935
-0.20436595 0.15707593 1.2049977
-0.19495781 0.15907972 1.2050824
-0.18468784 0.16132683 1.2042716
-0.17506203 0.16331413 1.2053084
-0.1654163 0.16541122 1.2047499
-0.15539648 0.16756237 1.204582
-0.14818454 0.16888782 1.2078305
-0.14222014 0.17044991 1.2034734
-0.13497503 0.171919 1.2046578
-0.12496022 0.17406908 1.2044899
-0.11523665 0.17610799 1.2050619
-0.10541958 0.17822868 1.2047001
-0.097996257 0.17966147 1.2070086
-0.092216827 0.18118365 1.2026573
-0.084791347 0.18261665 1.2049699
-0.075042643 0.18466108 1.2055397
-0.065028131 0.18681057 1.2053802
-0.055433612 0.18889728 1.204813
0.0097672418 0.20294158 1.2030088
0.015225211 0.20393156 1.2056642
0.025360389 0.20614956 1.2048564
0.034781806 0.20815638 1.2049364
0.041271292 0.20961016 1.2039111
0.046770442 0.2106602 1.2057916
0.055789694 0.21265453 1.2047628
0.065212399 0.21466161 1.2048427
0.075003222 0.21674582 1.2049458
0.085455634 0.2189624 1.2051834
0.09451209 0.22096042 1.2042187
0.10543092 0.22325043 1.204852
0.11588851 0.22546813 1.2050896
0.12574907 0.2275731 1.2051039
0.13246971 0.22910589 1.2036304
-0.26157451 0.14397639 1.2183142
-0.25426123 0.14576444 1.2148966
-0.24523877 0.14765559 1.215439
-0.23619078 0.14980677 1.2121329
-0.23259166 0.15030748 1.2161843
-0.22482085 0.15199986 1.2156904
-0.2154353 0.15406893 1.214715
-0.20495577 0.15629153 1.2149513
-0.19409856 0.15856776 1.2155964
-0.18816707 0.15955687 1.2197951
-0.18388121 0.16090006 1.213328
-0.17425369 0.16285512 1.2148576
-0.1644069 0.16495121 1.2149634
-0.1549181 0.16697212 1.2150499
-0.14459039 0.16923247 1.2142253
-0.13485017 0.17124306 1.2152796
-0.12514345 0.17335379 1.2147118
-0.11504648 0.17552161 1.214541
-0.10523701 0.17757826 1.2151227
-0.097746104 0.17902263 1.217474
-0.09293592 0.18040973 1.2120357
-0.085453846 0.18185237 1.2143843
-0.075629249 0.18391246 1.2149632
-0.064703263 0.18620336 1.2156084
-0.054775316 0.18841092 1.2142906
0.0098434258 0.20233709 1.2123922
0.015344217 0.20333344 1.2150893
0.025214031 0.2054344 1.215194
0.035745464 0.20766759 1.2154357
0.043859437 0.20940694 1.215338
0.049157407 0.21083066 1.210921
0.054852251 0.21171199 1.2159832
0.065386437 0.21404596 1.2147106
0.075589195 0.21624818 1.2143595
0.085560225 0.21827661 1.2158878
0.090708964 0.21966869 1.2114667
0.096385308 0.22070281 1.2141596
0.10421549 0.22225101 1.2160352
0.11507346 0.22465296 1.2147802
0.12489529 0.22677523 1.214408
0.13160598 0.22811952 1.2157518
-0.26275566 0.1430189 1.2289752
-0.25537223 0.14482568 1.2255011
-0.24534939 0.1469914 1.2251228
-0.2353282 0.14915638 1.22475
-0.22439964 0.15144715 1.2254057
-0.21438718 0.15361065 1.2250276
-0.20437618 0.15577346 1.2246549
-0.19437602 0.15793428 1.2242773
-0.18796699 0.15921277 1.2256434
-0.18248017 0.16036355 1.225962
-0.17438935 0.16225263 1.2235277
-0.16466877 0.16422588 1.2250832
-0.15473826 0.16633971 1.2251909
-0.14468715 0.1685432 1.2243327
-0.138541 0.16957417 1.2285919
-0.13350098 0.17101681 1.2230563
-0.12493014 0.17268492 1.2255123
-0.11514642 0.17481272 1.2249348
-0.10496589 0.17699859 1.2247612
-0.095068954 0.17907324 1.2253528
-0.085092776 0.18122871 1.2249786
-0.075125597 0.18338245 1.224602
-0.065213308 0.18546057 1.2251904
-0.055036891 0.18764488 1.2250252
0.015465098 0.2027259 1.2246628
0.025412709 0.20484336 1.2247692
0.035405681 0.20687471 1.2263238
0.044205107 0.20884715 1.2249155
0.04954337 0.21028408 1.2204287
0.055284783 0.21117009 1.2255707
0.065218113 0.21331625 1.2251972
0.075139478 0.21546021 1.2248187
0.084383883 0.21739806 1.2253696
0.093784399 0.21956004 1.223037
0.098526143 0.22030002 1.227159
0.10503726 0.22179218 1.2256238
0.11423261 0.22382161 1.224632
0.12486228 0.22607593 1.2248716
-0.26291442 0.1425923 1.2349122
-0.25520745 0.14420788 1.2353729
-0.2450068 0.14644422 1.2345011
-0.2362863 0.14823918 1.2355227
-0.22986571 0.14991242 1.230958
-0.22526206 0.15054959 1.23619
-0.21609025 0.15260315 1.2347593
-0.20599921 0.15478346 1.2343808
-0.19496885 0.15709527 1.2350467
-0.18392657 0.1594096 1.2357135
-0.17480612 0.16145211 1.234284
-0.16473655 0.16362816 1.2339003
-0.15492114 0.16561989 1.2354825
-0.14543989 0.16771154 1.2344751
-0.13809983 0.16927592 1.234525
-0.13256015 0.17043771 1.2348484
-0.12476477 0.17210399 1.2348285
-0.11484164 0.17415126 1.2359188
-0.10464894 0.17645079 1.234066
-0.094714187 0.17850062 1.2351549
-0.088193938 0.179737 1.2375165
-0.083573036 0.18087919 1.2351698
-0.074611604 0.18284462 1.234392
-0.064622037 0.18493837 1.2349925
-0.05575316 0.18676481 1.2360158
0.01627362 0.20218094 1.2355105
0.025614545 0.20424294 1.2344966
0.035687272 0.20628968 1.2360759
0.045632105 0.20856854 1.2337334
0.050333772 0.20916478 1.239899
0.055724189 0.21061954 1.2353108
0.064564519 0.21260211 1.2338818
0.074673757 0.21465652 1.2354631
0.08470957 0.21679264 1.2355722
0.094676629 0.21897908 1.234699
0.10470801 0.22111426 1.2348078
0.11483352 0.22320469 1.2358974
0.1246817 0.22543053 1.2340443
0.13054341 0.2264984 1.2368256
-0.26376978 0.14179508 1.2442021
-0.25503662 0.14358072 1.2454054
-0.24465425 0.14588967 1.2440225
-0.23587084 0.14769694 1.2450614
-0.22706798 0.14950833 1.2461005
-0.22062704 0.15119112 1.2414576
-0.21503976 0.15212192 1.2454264
-0.20543265 0.15424192 1.2443967
-0.19557709 0.1562407 1.246002
-0.18540052 0.15843973 1.2456166
-0.17523523 0.16063669 1.2452258
-0.16507128 0.16283299 1.2448406
-0.1549187 0.1650272 1.2444503
-0.14500657 0.1670378 1.2460597
-0.13462746 0.16941226 1.2436759
-0.1246953 0.17142728 1.2452832
-0.1145975 0.17357659 1.2453945
-0.1044093 0.17581126 1.2445078
-0.094315976 0.17795965 1.2446189
-0.087850809 0.17908248 1.2485195
-0.082963854 0.18050453 1.242801
-0.075208902 0.18206336 1.2442734
-0.065139629 0.18417348 1.2448835
-0.056200076 0.18601392 1.2459233
0.015750896 0.20132488 1.2467626
0.024719756 0.20333666 1.2453071
0.034822516 0.2055198 1.2449214
0.044913054 0.20770067 1.2445304
0.052798107 0.20933108 1.2453408
0.058513366 0.2104196 1.2473373
0.065081187 0.21205929 1.243755
0.075272046 0.21412942 1.2453619
0.08538831 0.21628261 1.2454726
0.094266698 0.21827486 1.24402
0.10131943 0.21952334 1.2479162
0.10655127 0.22094838 1.2432657
0.11462285 0.22250873 1.2457368
0.1245992 0.22473113 1.2443497
-0.2633734 0.14129613 1.2530248
-0.25485951 0.14294402 1.2556028
-0.24429142 0.14532764 1.2536905
-0.23544422 0.14714736 1.2547472
-0.22796851 0.1485782 1.2572542
-0.22146408 0.15027985 1.2525311
-0.21553893 0.15136321 1.2552842
-0.20485339 0.15369222 1.2545769
-0.19484116 0.15575613 1.2557039
-0.18690272 0.15745357 1.2556745
-0.17763157 0.15953134 1.2541984
-0.17202915 0.16070449 1.2545522
-0.16541706 0.16202287 1.2559712
-0.15516849 0.16423769 1.2555794
-0.14493151 0.16645037 1.2551824
-0.13469574 0.1686624 1.2547911
-0.12447165 0.17087233 1.2543945
-0.11444058 0.17290661 1.2560297
-0.10403747 0.17528874 1.2536077
-0.095077336 0.17713249 1.2546657
-0.086097367 0.1789804 1.2557237
-0.080450639 0.1801641 1.2560604
-0.074657135 0.18154581 1.2538779
-0.064535841 0.18363306 1.2550013
-0.055533305 0.18547438 1.2562311
0.01472945 0.20051165 1.2557575
0.024919441 0.20271391 1.2553647
0.035103731 0.2049149 1.2549728
0.045275602 0.20711358 1.2545755
0.055441719 0.20931095 1.2541791
0.064519353 0.21121304 1.2547328
0.074710757 0.21338215 1.2548451
0.084973812 0.21549959 1.2559704
0.095027223 0.21777329 1.2540567
0.10213947 0.21903029 1.2580163
0.10741041 0.22046869 1.2532902
0.11554887 0.22204065 1.2558013
0.12446533 0.22404265 1.2543247
-0.26733103 0.1399222 1.2610168
-0.26277754 0.14053151 1.2665081
-0.25333658 0.14264725 1.2650065
-0.24391794 0.14475799 1.2635084
-0.23500603 0.14659031 1.2645832
-0.22494325 0.14866388 1.2657267
-0.21851638 0.1498725 1.2682066
-0.21294264 0.15145305 1.2623092
-0.20539214 0.15289715 1.2648573
-0.19521847 0.15502852 1.2654852
-0.18473643 0.15736175 1.2640573
-0.177103 0.15882377 1.2666017
-0.17173319 0.16036013 1.2607142
-0.16550136 0.16139147 1.265244
-0.15643674 0.16329075 1.2657996
-0.14611138 0.16552243 1.2654011
-0.13579193 0.16775277 1.2650034
-0.12754789 0.16968556 1.2624029
-0.12342076 0.17027631 1.266798
-0.11413927 0.17235778 1.2652996
-0.10488337 0.17443381 1.2638007
-0.094751261 0.17648804 1.2654605
-0.0832434 0.17903602 1.2640961
-0.078958742 0.17965974 1.2685001
-0.074032821 0.1811021 1.2625998
-0.065061182 0.18284504 1.2652169
-0.054817297 0.18499109 1.2658477
0.013693796 0.19968672 1.2648835
0.01824278 0.20070705 1.2641459
0.02512238 0.20208104 1.265586
0.034215387 0.20412225 1.2640862
0.044532456 0.20621581 1.265746
0.054706991 0.20855154 1.2632861
0.060663186 0.20945969 1.268787
0.066139728 0.21094713 1.263983
0.075318798 0.21283637 1.265058
0.084808208 0.21488142 1.2647799
0.094691649 0.21699746 1.2647005
0.10501095 0.21915965 1.2653307
0.11524758 0.22137269 1.2649255
0.12439865 0.22331244 1.2651467
-0.26677203 0.13913804 1.2746763
-0.25541529 0.14151667 1.2753866
-0.24497977 0.14377221 1.2749827
-0.23455584 0.14602564 1.2745731
-0.22318202 0.14840789 1.2752833
-0.213723 0.15052889 1.2737609
-0.20471287 0.15238102 1.2748532
-0.19508803 0.15445536 1.2745711
-0.18511046 0.15659168 1.2744911
-0.17485182 0.15874034 1.2751317
-0.16914192 0.15993692 1.275479
-0.16467102 0.16082616 1.2764713
-0.15518753 0.16299886 1.2742462
-0.14497283 0.16510361 1.2754087
-0.13587733 0.16697411 1.276499
-0.12651362 0.16907494 1.2749739
-0.12030742 0.17072195 1.2701133
-0.11507602 0.17147079 1.2756845
-0.10468253 0.17371735 1.2752802
-0.094301209 0.17596164 1.2748702
-0.08499901 0.17804898 1.2733482
-0.078206182 0.17940196 1.274826
-0.07246916 0.18060444 1.2751702
-0.06442038 0.18232483 1.2751486
-0.054824334 0.18439294 1.2748657
0.014971401 0.19919895 1.276381
0.019482773 0.20055796 1.2704022
0.025328651 0.20143777 1.2759752
0.034495965 0.2034965 1.2744507
0.046018541 0.20591043 1.2751601
0.0551553 0.2079625 1.2736374
0.062112372 0.2093505 1.275116
0.066677779 0.21037672 1.2743419
0.074811481 0.21201141 1.2758901
0.085039839 0.21432653 1.2739153
0.094311871 0.21623459 1.2750057
0.10471711 0.21841466 1.2756431
0.11166176 0.21987006 1.276063
0.11603544 0.2209692 1.273568
0.12198423 0.22210154 1.2756561
-0.27174032 0.13760467 1.2818156
-0.26533371 0.1388039 1.2843723
-0.25513905 0.14090316 1.2855535
-0.24701031 0.14264134 1.2855223
-0.23649512 0.14491436 1.2851114
-0.22598609 0.14718601 1.2847013
-0.21548891 0.14945552 1.2842857
-0.21062961 0.15011723 1.2899718
-0.20401767 0.15185785 1.2850066
-0.19450966 0.15399086 1.2834609
-0.18433936 0.1560498 1.2851728
-0.17392366 0.15826656 1.2852912
-0.1685189 0.15922131 1.2883089
-0.16208091 0.1609242 1.2833524
-0.15532137 0.16226867 1.2848526
-0.14496154 0.16443847 1.2855004
-0.13490318 0.16659236 1.2854158
-0.12521026 0.16868122 1.285134
-0.11602827 0.17056909 1.2862411
-0.10661705 0.17268156 1.284692
-0.095081002 0.17509761 1.285413
-0.084614612 0.17736009 1.2850021
-0.075255364 0.1794616 1.2834507
-0.070876643 0.18009639 1.2879906
-0.063712887 0.1818791 1.2841702
-0.055607483 0.18361162 1.2841482
0.016232364 0.19886965 1.2854294
0.025538336 0.20078386 1.2865363
0.03478118 0.20286039 1.2849865
0.044001784 0.2049319 1.2834404
0.054490007 0.20705867 1.2851515
0.064927533 0.20928 1.2852695
0.074570805 0.21135849 1.2849822
0.084612764 0.21350858 1.2849003
0.09509185 0.21570355 1.2855508
0.1039703 0.21761024 1.2853918
0.112589 0.21936911 1.2866282
0.11793556 0.22083822 1.2816818
0.12172465 0.22142294 1.2850754
-0.27214918 0.13665999 1.2947768
-0.26397339 0.13840763 1.2947551
-0.25874168 0.13932244 1.2978171
-0.25190669 0.14111498 1.2927876
-0.24520326 0.142446 1.29431
-0.23606484 0.14432341 1.2954346
-0.2259569 0.14654835 1.2944356
-0.21631046 0.14849612 1.2961365
-0.20571837 0.15078604 1.2957189
-0.19513252 0.15307453 1.295302
-0.18455882 0.15536085 1.2948793
-0.17399143 0.15764575 1.2944578
-0.16695632 0.15916631 1.2941855
-0.16138253 0.16021411 1.2963419
-0.15422925 0.16181955 1.2951683
-0.14446245 0.16392481 1.2948772
-0.13549088 0.16585118 1.294723
-0.12504132 0.16803949 1.2953808
-0.11700019 0.16965179 1.2969697
-0.1107205 0.17132542 1.2919444
-0.10514393 0.17231371 1.2950079
-0.09587381 0.17421919 1.2961316
-0.086414762 0.17634341 1.2945585
-0.074778639 0.17878011 1.2952905
-0.065351307 0.18089743 1.2937194
-0.056070738 0.18280497 1.2948457
0.017512575 0.19853622 1.2946019
0.023365056 0.19976234 1.2949616
0.026940499 0.20029676 1.2984259
0.035071157 0.20221366 1.2956979
0.044368178 0.20430323 1.2941259
0.054944288 0.20644686 1.2958658
0.066563144 0.20902294 1.2944351
0.071485408 0.20976865 1.2990532
0.075812943 0.2111022 1.2928661
0.084143408 0.21270452 1.2955387
0.094631195 0.2149725 1.2951139
0.10511217 0.2172384 1.2946984
0.11352876 0.21885936 1.2973671
0.1176447 0.22014701 1.2911906
0.12018752 0.22053827 1.2934854
-0.27350414 0.13557371 1.3068237
-0.26374653 0.13776322 1.3052292
-0.25591308 0.13969626 1.3012992
-0.25211906 0.14019765 1.3059698
-0.24483001 0.14183325 1.3047787
-0.23497026 0.14395864 1.3044833
-0.22475593 0.14614576 1.3043995
-0.21427688 0.14833951 1.3050704
-0.20745125 0.14969569 1.306607
-0.20077205 0.15145962 1.301507
-0.19677709 0.15200365 1.3061818
-0.18610923 0.15431014 1.3057576
-0.17646976 0.15647453 1.3041615
-0.16479865 0.15891807 1.3049049
-0.15415597 0.16121949 1.3044767
-0.14481051 0.16317585 1.3050764
-0.13422981 0.16542758 1.3051984
-0.12439194 0.16754834 1.3049028
-0.11798466 0.16871959 1.3078828
-0.1127219 0.17025861 1.3016088
-0.10602732 0.17140527 1.3058879
-0.095938899 0.17362703 1.3048724
-0.084766813 0.17600235 1.3050342
-0.075406983 0.17792583 1.3061751
-0.068135381 0.17973921 1.3022392
-0.063664138 0.18038473 1.306916
-0.05529217 0.18235578 1.304149
0.017636841 0.19796397 1.3036529
0.024763383 0.19926357 1.3070149
0.029335486 0.20065472 1.3007464
0.034154125 0.20137495 1.3054153
0.044740722 0.203664 1.304991
0.055315305 0.20595078 1.3045621
0.06475763 0.20792773 1.3051612
0.07644885 0.21052063 1.3037099
0.085149609 0.21229438 1.3049866
0.094163619 0.21422988 1.3048295
0.10481232 0.21645994 1.3054969
0.11501035 0.21864378 1.305409
-0.27411461 0.13487689 1.3153869
-0.26598006 0.13655502 1.3162827
-0.25616455 0.1387587 1.3146609
-0.24444523 0.14121175 1.3154165
-0.23466271 0.14340827 1.3137968
-0.22538789 0.14531231 1.3149588
-0.21414408 0.14770333 1.3151169
-0.20821065 0.14872189 1.3188769
-0.20246501 0.15037085 1.3125
-0.194592 0.15187015 1.3152553
-0.18547179 0.15382902 1.3150891
-0.17554379 0.15596896 1.3147942
-0.16619387 0.15788928 1.315953
-0.15859245 0.15977705 1.3119582
-0.15441507 0.16035524 1.3167057
-0.14473011 0.16253081 1.3150871
-0.13401105 0.16484897 1.3146521
-0.12458333 0.16682222 1.3152606
-0.11258956 0.1694812 1.3137869
-0.10400809 0.17122817 1.3150834
-0.094901398 0.17318363 1.3149238
-0.085796058 0.17513926 1.3147572
-0.077166811 0.17689663 1.3160509
-0.066457495 0.17921235 1.3156197
-0.060290586 0.18087175 1.3104447
-0.055759981 0.18152583 1.3151836
0.016608356 0.19697051 1.3153496
0.024311565 0.19865747 1.3147175
0.035582978 0.20105384 1.3148817
0.045119576 0.20301393 1.31604
0.054549992 0.20513526 1.3144183
0.065197676 0.20743807 1.3139831
0.073488891 0.20921034 1.3139604
0.079608358 0.21030866 1.3171136
0.085391268 0.21170244 1.3147144
0.095250674 0.21382798 1.3144138
0.10404862 0.21562125 1.3157091
0.11391632 0.21774824 1.3154134
-0.27441093 0.13421409 1.3244501
-0.26591298 0.13594206 1.3257658
-0.25588614 0.13810341 1.3254663
-0.24847575 0.13976821 1.3242254
-0.24556307 0.14015064 1.3278487
-0.23666309 0.14224018 1.3249964
-0.22484028 0.14471455 1.3257638
-0.21500523 0.14692396 1.3241186
-0.20317772 0.14939938 1.324885
-0.19235937 0.15173918 1.3244433
-0.18399778 0.15352657 1.3244208
-0.17400365 0.15568128 1.3241162
-0.16540806 0.15743014 1.3254313
-0.15678763 0.15918431 1.3267466
-0.15126309 0.16079147 1.3202878
-0.14596505 0.16152474 1.3263088
-0.13622388 0.16371417 1.324662
-0.12434583 0.16620027 1.3254285
-0.1146379 0.16838241 1.3237834
-0.10916828 0.16915086 1.3298249
-0.10385799 0.17071386 1.3233421
-0.095205404 0.17247476 1.3246574
-0.084842242 0.17469376 1.3245704
-0.074127927 0.17693627 1.3252618
-0.067028888 0.17834762 1.3268456
-0.060803201 0.18002516 1.3215866
-0.056235779 0.18068175 1.3264067
0.017890563 0.19679619 1.3221238
0.025094796 0.19815485 1.3248434
0.032280281 0.19965951 1.325296
0.037033923 0.20072865 1.3244811
0.044264551 0.20216803 1.326066
0.055015262 0.20449302 1.3256283
0.064502023 0.20662795 1.3239827
0.075223826 0.208947 1.3235413
0.080288693 0.20970929 1.3283697
0.08721403 0.21145713 1.3243064
0.095569961 0.21324323 1.3242832
0.10521819 0.21522583 1.3254616
0.11437094 0.21719177 1.3252925
-0.27438447 0.13358459 1.334052
-0.2634674 0.1359459 1.3336043
-0.25490773 0.13768566 1.3349408
-0.24865749 0.13881427 1.3380601
-0.24263266 0.14053538 1.331494
-0.23638296 0.14166434 1.3346058
-0.22777371 0.14341493 1.3359394
-0.21685256 0.14577682 1.3354957
-0.20593806 0.14813724 1.3350531
-0.19503643 0.15049532 1.3346038
-0.1841415 0.15285192 1.3341559
-0.17459747 0.15484886 1.3347832
-0.16377884 0.15715104 1.3349109
-0.15534952 0.15895328 1.3348825
-0.15043172 0.16005935 1.3340398
-0.14502622 0.16108833 1.3359374
-0.13494998 0.16326046 1.3356326
-0.12650734 0.16506581 1.3355985
-0.11562256 0.16741984 1.3351543
-0.10585845 0.16961586 1.3334808
-0.10141828 0.17023969 1.3383851
-0.093879506 0.17212254 1.3342619
-0.083021276 0.17447118 1.3338133
-0.07427936 0.17624979 1.3351498
-0.065037392 0.17823444 1.3349854
-0.057875212 0.17965773 1.3365926
-0.051640529 0.18134232 1.331256
0.016826807 0.19589929 1.3322467
0.023686761 0.19715829 1.3353616
0.0325609 0.19896525 1.336696
0.0384342 0.20057276 1.331358
0.045790579 0.20184763 1.3358356
0.054229885 0.20365226 1.3358015
0.065056205 0.20599382 1.3353572
0.074599937 0.20814253 1.3336875
0.080980755 0.20909956 1.3398198
0.085396893 0.21047807 1.3332394
0.09430372 0.21229196 1.3345747
0.10482082 0.21446827 1.3356299
0.11448161 0.21651517 1.3358769
-0.27675983 0.13231331 1.3456012
-0.26671243 0.13457136 1.3439064
-0.25473842 0.13707656 1.3446959
-0.24374096 0.1394555 1.344241
-0.23977859 0.13997227 1.3492224
-0.23374522 0.14170228 1.3425497
-0.22509813 0.14345954 1.3439041
-0.21642546 0.14522223 1.3452587
-0.20772724 0.1469904 1.3466135
-0.19672558 0.14936997 1.3461627
-0.18677482 0.15160747 1.3444664
-0.17474884 0.15412372 1.3452566
-0.16377388 0.1564979 1.3448013
-0.15528432 0.15831262 1.3447781
-0.14958282 0.15931179 1.348081
-0.1429235 0.161093 1.3426549
-0.13638632 0.16227983 1.3458189
-0.12623753 0.16446775 1.3455095
-0.11582707 0.16676244 1.3444313
-0.105657 0.16881311 1.3462654
-0.09469229 0.17118467 1.3458142
-0.084872603 0.17339405 1.3441184
-0.073937267 0.17575961 1.3436632
-0.065121613 0.17755264 1.3450195
-0.058377184 0.17878358 1.3481855
-0.053247757 0.18032005 1.3415198
0.016972285 0.19516841 1.3437641
0.024269303 0.19661802 1.3454089
0.033570275 0.19861595 1.3452345
0.044302847 0.20088767 1.3455434
0.055841122 0.20334049 1.3457154
0.064342625 0.20515846 1.3456808
0.075245619 0.20751682 1.3452301
0.084842235 0.20967875 1.343531
0.088722765 0.21026079 1.3472605
0.094620757 0.21168648 1.3447504
0.10470315 0.21386056 1.3444358
0.11184423 0.2151764 1.3475993
-0.28110492 0.13077544 1.3548205
-0.2733942 0.13241445 1.3549393
-0.26535061 0.13409664 1.3554798
-0.25794685 0.13569875 1.3551651
-0.24685842 0.13809724 1.3547088
-0.23477635 0.14062467 1.355511
-0.22470829 0.14288878 1.353791
-0.21364671 0.14528184 1.35333
-0.20490976 0.14705683 1.3547063
-0.19844809 0.14822444 1.3579187
-0.1915442 0.15006329 1.3524112
-0.18590686 0.15104517 1.3557694
-0.17733558 0.15287812 1.3557347
-0.16626965 0.15527183 1.3552778
-0.15413474 0.15781043 1.3560803
-0.14634004 0.1597558 1.3518381
-0.14198947 0.16035147 1.3568788
-0.13312592 0.16244175 1.3538963
-0.12430332 0.16423489 1.3552732
-0.11491584 0.16625097 1.355104
-0.10552967 0.16826729 1.3549271
-0.098921821 0.16975473 1.3537749
-0.095523514 0.17022984 1.3575637
-0.085612886 0.1724603 1.3558428
-0.07573165 0.17468449 1.3541217
-0.063553512 0.17723238 1.3549225
-0.05371131 0.1794484 1.3531989
0.018359039 0.19460583 1.3567445
0.024860946 0.19607009 1.3556007
0.034600213 0.19826394 1.3538803
0.041625503 0.19955209 1.3570881
0.047552053 0.20118175 1.3515871
0.054415893 0.20238429 1.3555679
0.06604144 0.20485561 1.3557426
0.074606061 0.20668705 1.3557075
0.085586824 0.2090625 1.3552499
0.09655448 0.21143544 1.3547872
0.10510245 0.21326262 1.354763
0.1114907 0.21440518 1.3581152
-0.28357673 0.12945947 1.3667337
-0.27335936 0.13175705 1.36499
-0.2621896 0.13417371 1.3645211
-0.25357389 0.13601543 1.3644974
-0.2449559 0.13785806 1.3644676
-0.23785412 0.13926356 1.3661499
-0.22668263 0.14168026 1.3656862
-0.21654946 0.14396 1.3639402
-0.20436697 0.14650817 1.3647536
-0.19322284 0.14891933 1.3642849
-0.1890112 0.14947945 1.3694162
-0.18208569 0.15132894 1.3638175
-0.17431508 0.15298063 1.363938
-0.16546102 0.15477936 1.3653331
-0.15658057 0.15658365 1.3667279
-0.1465293 0.15884601 1.3649789
-0.1353983 0.16125393 1.3645152
-0.12427974 0.16365956 1.3640462
-0.11538192 0.16546738 1.3654438
-0.10592511 0.16749841 1.365272
-0.098650441 0.16894087 1.3669528
-0.092108265 0.17070732 1.3613716
-0.087520368 0.17134874 1.3664869
-0.076397151 0.17375505 1.366022
-0.066453613 0.17599428 1.3642749
-0.055360705 0.17839439 1.3638059
0.0185207 0.19385 1.3686913
0.025850343 0.19570072 1.364378
0.03446006 0.19754112 1.3643537
0.040717617 0.19865263 1.3677534
0.046696633 0.20029905 1.3621681
0.053782314 0.20159687 1.3654248
0.062887371 0.20344913 1.36682
0.074441865 0.20610361 1.3639965
0.085023589 0.20823865 1.3658847
0.094759695 0.21043353 1.3641376
0.10536062 0.2125724 1.3660296
-0.28066945 0.12982509 1.3705935
-0.27676377 0.13031626 1.375779
-0.26550025 0.13275306 1.3753085
-0.25424883 0.13518763 1.3748325
-0.24401237 0.13749097 1.3730634
-0.23688531 0.13889974 1.374778
-0.2317674 0.14005196 1.3738842
-0.22631957 0.14108236 1.3758973
-0.21592294 0.14332423 1.3755746
-0.20722561 0.1451842 1.3755388
-0.19598779 0.14761548 1.3750683
-0.18689214 0.14976124 1.371998
-0.18262728 0.15032844 1.377194
-0.17354001 0.15247242 1.3741229
-0.16232999 0.15489802 1.3736472
-0.15340881 0.15670954 1.3750647
-0.14519703 0.15842651 1.3756208
-0.13993117 0.15974444 1.3726993
-0.1366016 0.16019779 1.376595
-0.12649935 0.16247237 1.3748256
-0.11416538 0.16505191 1.375651
-0.10296351 0.16747582 1.3751744
-0.094071232 0.16957787 1.372107
-0.090615183 0.17005862 1.3759969
-0.083927989 0.17156462 1.3748206
-0.074910007 0.17339683 1.3762379
-0.064894103 0.17565323 1.3744644
-0.055850714 0.17749111 1.375878
0.024816884 0.19476655 1.3751626
0.035966646 0.1971793 1.3746862
0.044641182 0.19903356 1.3746614
0.054959673 0.20125902 1.3743328
0.064117573 0.20312117 1.375749
0.074444957 0.20534815 1.3754257
0.083133765 0.2072062 1.3753895
0.092939965 0.2094177 1.3736182
0.098264165 0.21021068 1.3788196
0.10539473 0.21202312 1.3744422
-0.28316393 0.12848552 1.3827904
-0.2792379 0.12897535 1.388062
-0.2718446 0.13093489 1.38231
-0.26542696 0.13208368 1.3856646
-0.2549473 0.13434358 1.3853374
-0.24618717 0.13621698 1.385301
-0.23485622 0.13866863 1.3848239
-0.22353768 0.14111796 1.3843416
-0.21461077 0.1429293 1.3857816
-0.20434432 0.14524092 1.3839842
-0.19539118 0.14705811 1.3854208
-0.18641095 0.14888108 1.3868576
-0.17617309 0.15118672 1.385057
-0.16486818 0.15363269 1.3845794
-0.15357594 0.15607631 1.3840965
-0.14457777 0.15790284 1.3855357
-0.13894361 0.15897152 1.3875703
-0.13213405 0.16080609 1.3818222
-0.12537973 0.16202688 1.3851738
-0.11632844 0.16386497 1.3866096
-0.10618339 0.16615073 1.3848095
-0.094904616 0.16859111 1.3843321
-0.083638795 0.17102909 1.3838493
-0.074569546 0.17287083 1.3852879
-0.064980529 0.17493042 1.3851111
-0.057548784 0.17640318 1.3868411
0.018685231 0.19308072 1.3808503
0.023761345 0.19381665 1.3861133
0.035005908 0.19624978 1.3856351
0.046236973 0.19868039 1.3851514
0.056160536 0.2009186 1.383355
0.065371834 0.20279074 1.3847924
0.074610315 0.20466869 1.3862303
0.084504783 0.20690085 1.3844312
0.093768634 0.20878445 1.3858653
0.10363564 0.21101069 1.3840672
-0.28570569 0.12712158 1.3952026
-0.27428007 0.12959388 1.3947189
-0.26286685 0.13206391 1.3942294
-0.25391743 0.13387871 1.3956903
-0.24352629 0.13621867 1.393867
-0.23697142 0.13739371 1.3972681
-0.22762968 0.13959807 1.394106
-0.22345793 0.14013463 1.3994645
-0.21518433 0.14219995 1.3949556
-0.20378518 0.1446666 1.394472
-0.19239873 0.14713089 1.3939828
-0.18509759 0.14857331 1.3957499
-0.17993571 0.1497367 1.3948281
-0.17479588 0.15089411 1.3939259
-0.16745192 0.15234642 1.3956814
-0.15606333 0.15481074 1.3951964
-0.14468765 0.15727268 1.3947059
-0.13444643 0.15958039 1.3928847
-0.1253711 0.16142218 1.3943423
-0.11626825 0.16326982 1.3958
-0.10574737 0.16553876 1.3954673
-0.096927039 0.16742499 1.3954297
-0.087917775 0.16955802 1.3922715
-0.083212197 0.17020924 1.3976188
-0.074216127 0.17233984 1.394455
-0.065067492 0.17419706 1.3959156
-0.056612127 0.17610326 1.394398
0.018852713 0.19229767 1.3932272
0.024749687 0.19342016 1.3952971
0.034024004 0.1953045 1.3967539
0.044046551 0.19756584 1.3949271
0.05273363 0.1996299 1.3917713
0.057977512 0.20039634 1.3971146
0.066650823 0.20245785 1.393953
0.075943694 0.20434594 1.3954128
0.085901879 0.20659332 1.3935896
0.095220558 0.20848717 1.3950458
0.10184826 0.20998345 1.3938241
0.10456328 0.21038637 1.3964986
-0.29027456 0.12548988 1.4051182
-0.28502506 0.12667161 1.4042029
-0.27776673 0.12810399 1.4059848
-0.26625562 0.13059504 1.4054935
-0.25475714 0.13308378 1.4049964
-0.24326213 0.13557136 1.404506
-0.23282349 0.13792333 1.4026542
-0.22864345 0.13845706 1.408082
-0.22135866 0.14040464 1.4021609
-0.21578307 0.14145677 1.4042578
-0.20670192 0.14329869 1.4057341
-0.19521764 0.14578398 1.4052426
-0.18374622 0.14826682 1.4047451
-0.17338 0.15060295 1.4028975
-0.16428046 0.15244853 1.404376
-0.15515302 0.15430003 1.4058547
-0.14481622 0.15663007 1.4040045
-0.13566206 0.15848754 1.4054794
-0.12420465 0.16096701 1.4049877
-0.11276045 0.16344404 1.4044904
-0.10358664 0.16530524 1.4059724
-0.095028251 0.1672349 1.4044325
-0.087527603 0.16871893 1.4062144
-0.076081038 0.17119612 1.4057223
-0.06464792 0.17367083 1.4052243
-0.054434851 0.17597432 1.4033756
0.019023223 0.19150046 1.4058281
0.025759393 0.19302033 1.4046005
0.035088442 0.19491486 1.4060796
0.045176428 0.19719179 1.4042286
0.054531693 0.19909216 1.405704
0.065924406 0.20155784 1.4052124
0.077303104 0.2040209 1.4047147
0.085975215 0.20608473 1.4015144
0.093362518 0.2074343 1.4049624
0.1014044 0.20914406 1.4050796
-0.28331128 0.12634428 1.414685
-0.27274394 0.12872553 1.4128065
-0.26868916 0.12922728 1.4183134
-0.26118201 0.13122804 1.412306
-0.25562608 0.13227396 1.4144335
-0.24652116 0.13411953 1.4159311
-0.2349396 0.13662609 1.4154328
-0.22337098 0.13913028 1.4149286
-0.21287729 0.14149548 1.4130548
-0.20375389 0.14334479 1.4145554
-0.19700281 0.14455493 1.4180574
-0.18761413 0.14677554 1.4148005
-0.17606243 0.14927557 1.4143023
-0.1634047 0.15192106 1.4151759
-0.15299292 0.15426911 1.4132955
-0.14493789 0.15598087 1.4134245
-0.13573106 0.15784808 1.4149224
-0.12765138 0.15956578 1.4150412
-0.1241851 0.16003235 1.4191788
-0.11611959 0.16206163 1.4145421
-0.1034227 0.16471548 1.4154161
-0.093084268 0.16704755 1.4135402
-0.083830424 0.16892458 1.4150414
-0.074548237 0.17080764 1.4165426
-0.066454142 0.1725284 1.4166619
-0.056150906 0.17485282 1.4147882
0.019196847 0.19068867 1.418659
0.026791116 0.19261712 1.4140257
0.036175475 0.19452195 1.4155278
0.046329722 0.1968147 1.4136518
0.055740748 0.19872546 1.4151502
0.065180108 0.20064227 1.4166487
0.075303905 0.20292871 1.4147696
0.085400879 0.20520909 1.4128957
0.094839953 0.20712578 1.4143955
0.10095064 0.20829056 1.4165156
-0.2909312 0.12431861 1.4207046
-0.28692231 0.12480623 1.4262772
-0.27524182 0.1273344 1.4257715
-0.2646026 0.12973297 1.4238634
-0.2615177 0.13011472 1.4280533
-0.25295046 0.13225503 1.4233586
-0.24380338 0.13410793 1.4248813
-0.23710284 0.13530397 1.4284354
-0.22755288 0.13756223 1.4251312
-0.21805046 0.13980964 1.4218376
-0.21375507 0.14035809 1.4274151
-0.20426582 0.142603 1.4241151
-0.19506173 0.14446792 1.4256388
-0.18452638 0.14684384 1.423736
-0.17768343 0.14807057 1.4272836
-0.17051692 0.15000361 1.4212
-0.16603409 0.1505921 1.4267756
-0.15552916 0.15296173 1.4248699
-0.14390664 0.15547736 1.4243646
-0.13345346 0.15783587 1.4224596
-0.12882414 0.15845525 1.4280417
-0.12186221 0.16034502 1.4219517
-0.11605695 0.16144218 1.4241077
-0.1067408 0.16333142 1.4256253
-0.09512943 0.16584471 1.4251196
-0.083531797 0.16835546 1.4246078
-0.071941704 0.17086452 1.4240973
-0.063817702 0.1725909 1.4242283
-0.056671467 0.17388225 1.4277785
0.025727559 0.19162339 1.4256129
0.037285786 0.19412576 1.4251008
0.046175919 0.19624233 1.4218069
0.05357103 0.19758691 1.4253556
0.06307628 0.19951637 1.4268759
0.073275872 0.20182079 1.4249697
0.084818065 0.20431927 1.4244645
0.096345775 0.20681506 1.4239531
0.10187908 0.20762698 1.4295433
-0.29260874 0.12299979 1.4352255
-0.28444186 0.12473524 1.4353591
-0.2744782 0.12687629 1.4351628
-0.26704895 0.12833968 1.4370277
-0.2563287 0.1307568 1.4351003
-0.24459173 0.13329788 1.4345821
-0.23286253 0.13583723 1.4340651
-0.22469671 0.13757247 1.4341985
-0.21790415 0.138785 1.437799
-0.21051238 0.14077209 1.4316255
-0.20724835 0.1411888 1.4358635
-0.19551842 0.14372794 1.4353495
-0.18379615 0.14626539 1.4348367
-0.1732125 0.14865361 1.4329038
-0.16870624 0.14924127 1.4385681
-0.16152188 0.15118448 1.4323882
-0.15573458 0.15227573 1.4345762
-0.14639241 0.15416902 1.4361162
-0.13468143 0.1567041 1.4356029
-0.12298422 0.15923661 1.4350835
-0.11247605 0.16160838 1.4331554
-0.10486559 0.16311017 1.4350233
-0.097213872 0.16462128 1.4368836
-0.086727202 0.16698878 1.4349505
-0.07626871 0.16934992 1.4330229
-0.071382023 0.170019 1.4386845
-0.063380875 0.17204304 1.4339195
-0.055702329 0.17355922 1.4357897
0.023318507 0.19042404 1.4359648
0.034966726 0.19294573 1.4354507
0.045265313 0.19527285 1.4335216
0.054798979 0.1972068 1.4350656
0.060938284 0.19837357 1.4372481
0.068490103 0.20030123 1.432489
0.074629188 0.20146759 1.4346775
0.084219337 0.20341384 1.4362177
0.094457187 0.20572811 1.4342865
0.1000233 0.20654161 1.439958
-0.29634869 0.12141158 1.4471599
-0.28551474 0.12385493 1.4452037
-0.27367976 0.12641697 1.4446845
-0.26290178 0.12884854 1.4427254
-0.25872159 0.12936145 1.4484684
-0.25109869 0.13140398 1.4422034
-0.24540956 0.13247232 1.4444221
-0.2361002 0.13435732 1.4459839
-0.22427653 0.13691697 1.445464
-0.2124664 0.13947408 1.4449373
-0.20286757 0.1417481 1.4415514
-0.19599985 0.14297347 1.4451996
-0.18663187 0.1448708 1.4467626
-0.17595209 0.1472813 1.4448028
-0.1641642 0.14983359 1.4442778
-0.16073507 0.15028076 1.4485881
-0.15238105 0.1523845 1.4437577
-0.14476669 0.15388528 1.4456534
-0.13828054 0.15524092 1.446101
-0.12649183 0.15779309 1.4455795
-0.11827532 0.15986665 1.4407616
-0.11352272 0.16050252 1.4464922
-0.10294393 0.16289142 1.4445333
-0.092396952 0.16527343 1.4425759
-0.086462118 0.1663941 1.4447953
-0.076978378 0.1683162 1.4463573
-0.066450059 0.17069429 1.4443988
-0.05470524 0.17323735 1.4438739
0.022205036 0.1893959 1.4479113
0.028613025 0.19117843 1.4416536
0.033949662 0.19193883 1.4473877
0.044340506 0.19428736 1.4454319
0.056052536 0.19682352 1.4449054
0.066390328 0.19916068 1.4429508
0.071878538 0.19995302 1.4486915
0.078075171 0.20169085 1.4424272
0.085658491 0.20306878 1.4460799
0.093935251 0.20482822 1.4462038
-0.29228643 0.12189671 1.4529424
-0.28480864 0.12336676 1.4548628
-0.27728745 0.12484664 1.4567757
-0.26641032 0.12730117 1.4547892
-0.25556561 0.1297487 1.4528046
-0.25238854 0.13013853 1.4571695
-0.24261083 0.13245431 1.4537311
-0.23506328 0.13393915 1.4556539
-0.22856028 0.13529795 1.4561074
-0.21665728 0.13787504 1.4555788
-0.20476216 0.14045034 1.4550517
-0.19288088 0.14302312 1.454518
-0.18213843 0.14544867 1.4525335
-0.17630161 0.14654638 1.4547836
-0.16684997 0.14846019 1.4563671
-0.15612637 0.15088178 1.4543815
-0.14309703 0.15360332 1.4553055
-0.13241358 0.15601616 1.4533224
-0.12472239 0.15753165 1.4552436
-0.11818688 0.15889746 1.4556969
-0.10632727 0.16146526 1.4551687
-0.094475463 0.16403128 1.4546417
-0.082637966 0.1665947 1.4541086
-0.074876785 0.168125 1.4560317
-0.068322189 0.16949485 1.4564855
-0.061485346 0.17137405 1.4501507
-0.056474265 0.17206018 1.4559566
0.024866864 0.18977343 1.4507974
0.027539326 0.1901525 1.4536953
0.033705875 0.19132037 1.4559492
0.042034693 0.19309083 1.4560747
0.053839218 0.19564688 1.4555464
0.065636098 0.19820121 1.4550191
0.076027557 0.200552 1.4530313
0.083995059 0.20212683 1.4549477
0.094046205 0.20428646 1.4547511
-0.29504442 0.12040075 1.4666523
-0.28406927 0.12287802 1.4646391
-0.27207994 0.12547436 1.4641001
-0.26374695 0.12724493 1.4642395
-0.25691175 0.12845653 1.4679925
-0.24705078 0.13079347 1.4645029
-0.23398896 0.13352115 1.4654402
-0.2231065 0.1359783 1.4634295
-0.213669 0.1378874 1.4650387
-0.20781797 0.13898654 1.4673132
-0.19695456 0.14143972 1.4653014
-0.18498719 0.14403091 1.4647672
-0.17303394 0.14661954 1.4642264
-0.16224714 0.14905632 1.4622152
-0.15876718 0.14950702 1.4666367
-0.15148681 0.15148681 1.4602135
-0.14680363 0.15209754 1.4661003
-0.13484803 0.15468627 1.4655657
-0.12290678 0.15727235 1.4650244
-0.11338764 0.15953563 1.4615433
-0.10619494 0.16082367 1.4652938
-0.096597992 0.16276699 1.4669003
-0.0858934 0.16518642 1.4648857
-0.072724983 0.1679368 1.4658231
-0.063319959 0.17017595 1.4623382
-0.058277369 0.17086257 1.4682384
0.025104761 0.18891971 1.4644703
0.036978967 0.19149135 1.4639307
0.045340359 0.19326793 1.4640694
0.055086315 0.19524302 1.4656767
0.063472688 0.19702566 1.465804
0.075348236 0.19959734 1.4652685
0.085805058 0.20196359 1.4632583
0.093839258 0.20355059 1.4652059
-0.29991895 0.11863461 1.4776132
-0.2909275 0.12088769 1.4725839
-0.28781474 0.12125586 1.4770687
-0.27676746 0.12375002 1.4750328
-0.26469651 0.1263644 1.4744853
-0.25263375 0.12897688 1.4739389
-0.24940357 0.12936977 1.4784288
-0.24166259 0.13145456 1.4719052
-0.23731118 0.13198844 1.477883
-0.22743078 0.13433258 1.4743458
-0.2142684 0.13708085 1.4752952
-0.20334011 0.1395496 1.4732575
-0.19381733 0.14147548 1.4748883
-0.18789583 0.14258762 1.4771936
-0.17698686 0.14505233 1.4751548
-0.16494635 0.14765963 1.4746132
-0.15526848 0.14996015 1.4710817
-0.15174612 0.15041636 1.475557
-0.1420889 0.15271237 1.4720269
-0.13852414 0.15317723 1.4765079
