# .PCD v0.7 - Point Cloud Data file format
VERSION 0.7
FIELDS x y z
SIZE 4 4 4
TYPE F F F
COUNT 1 1 1
WIDTH 496
HEIGHT 1
VIEWPOINT 0 0 0 1 0 0 0
POINTS 496
DATA ascii
0.061905641 -0.012802187 0.10808727
0.061962012 -0.0058180303 0.10807212
0.062618122 -0.012622796 0.11017898
-0.2031931 0.19418959 0.82585287
-0.1833351 0.20129533 0.82950842
-0.17377965 0.20164946 0.83096707
-0.16429876 0.20268476 0.83248144
-0.15485504 0.20378606 0.83399665
-0.14535913 0.20492513 0.83552355
-0.13451643 0.21084499 0.8377192
-0.1252622 0.2119174 0.83920342
-0.12048826 0.21293838 0.84001493
-0.11410163 0.21272513 0.8409459
-0.10475206 0.21369955 0.84243464
-0.090730727 0.22034605 0.84517533
-0.083889239 0.22096723 0.84625572
-0.074649699 0.22195336 0.84772927
-0.065344885 0.22285204 0.84920406
-0.21241187 0.20707497 0.85564482
-0.20497283 0.20732144 0.85267216
-0.19802327 0.20839617 0.85604316
-0.21271743 0.21520528 0.85504788
-0.20450328 0.21517788 0.85361791
-0.19851944 0.21378142 0.85716635
-0.21373492 0.22507778 0.85511959
-0.20444722 0.22506402 0.85523689
-0.19917819 0.22165382 0.85910845
-0.061096493 0.22572495 0.85011846
-0.055005405 0.22360899 0.85081887
-0.22090216 0.23950446 0.85920042
-0.21444938 0.23495741 0.85531515
-0.20563768 0.23465239 0.85626566
-0.04157573 0.23020694 0.85346675
-0.033769932 0.23100467 0.85470808
-0.024274424 0.23205502 0.85622627
-0.014314628 0.23332016 0.85783434
-0.0047934153 0.23325939 0.85924745
-0.22097963 0.24592341 0.85816145
-0.21467954 0.24509734 0.85537046
-0.20699643 0.24469303 0.85726231
-0.22179833 0.25545812 0.85779017
-0.21464643 0.25479758 0.85589314
-0.20848124 0.2547479 0.85832703
-0.22236584 0.2653501 0.85756004
-0.21480386 0.26491046 0.85696948
-0.20951842 0.26170471 0.85913807
-0.22336772 0.275345 0.85778153
-0.21565218 0.27496231 0.85798204
-0.22399558 0.28504854 0.85805386
-0.21739629 0.28449622 0.8585698
-0.22470321 0.29497576 0.8585524
-0.21887287 0.29381263 0.85934889
-0.23035096 0.30480745 0.85975152
-0.22519709 0.30488166 0.85913926
-0.23033959 0.31487522 0.85970908
-0.22703256 0.3141413 0.85958683
-0.23039731 0.32115993 0.85992455
-0.22883402 0.32036763 0.85988021
-0.19723558 0.21588662 0.86145812
-0.21893871 0.22515064 0.86062187
-0.20004494 0.22962359 0.86284709
-0.19918704 0.2246875 0.86183387
-0.22129105 0.23759612 0.86071301
-0.20155811 0.23557885 0.8626653
-0.0011639141 0.23705624 0.86016023
-0.22297561 0.24550568 0.86122149
-0.20375234 0.24524826 0.86243546
0.0077745402 0.24022998 0.86180317
0.015659757 0.24092272 0.86304617
0.025406526 0.24212885 0.86461681
0.03555835 0.24342559 0.86625689
0.045601871 0.24375784 0.86778623
-0.2245326 0.25405464 0.86123353
-0.20607042 0.25516698 0.86260295
-0.22676526 0.26486191 0.86184281
-0.21032292 0.26853055 0.86031342
-0.20816475 0.26475057 0.86317295
-0.22839077 0.27524599 0.86154878
-0.21120825 0.27598134 0.86220574
-0.20963031 0.272755 0.8638556
-0.23112381 0.28715125 0.86263609
-0.22903469 0.28338078 0.86063433
-0.21350303 0.28532237 0.86251414
-0.23165192 0.29539153 0.86170179
-0.21578036 0.29511875 0.8629688
-0.23368917 0.30535716 0.86240369
-0.22153588 0.30785313 0.86045808
-0.21795745 0.30477336 0.86352026
-0.23452641 0.31532294 0.86194968
-0.22247541 0.3155511 0.86164808
-0.21892893 0.31503588 0.86611688
-0.24008642 0.32454678 0.86689919
-0.23460767 0.32554245 0.86160254
-0.22454444 0.32487255 0.86283982
-0.2198994 0.32163224 0.86747527
-0.24125917 0.3357296 0.86549538
-0.23479569 0.33521461 0.8615244
-0.22601099 0.33474076 0.86386257
-0.24220029 0.34529898 0.86501545
-0.2349135 0.34506804 0.86187786
-0.22734278 0.34461758 0.86493486
-0.2430398 0.35528004 0.86457396
-0.23452893 0.35495061 0.86286229
-0.22810443 0.35386541 0.86694306
-0.24393974 0.3653174 0.86460447
-0.23483647 0.36489594 0.86421126
-0.22928384 0.36281151 0.86863852
-0.25020033 0.37333924 0.86943388
-0.24482353 0.37241179 0.86467791
-0.23468021 0.37248063 0.86580831
0.058348488 0.24830788 0.87013149
0.058098406 0.25045073 0.87030411
0.065022431 0.25098759 0.87138844
0.075315505 0.25232524 0.87305361
0.085720897 0.25299871 0.87467021
0.0949734 0.2538628 0.87613374
0.10861657 0.26083833 0.87885028
0.11266077 0.26102257 0.87947106
-0.22221483 0.33371487 0.87041426
-0.2249959 0.34653077 0.87104797
-0.22724974 0.35699511 0.87165564
-0.22910811 0.36508015 0.87124896
-0.23083821 0.37319553 0.87184638
0.11926425 0.25837937 0.88019621
0.11874224 0.2617088 0.88044465
0.12635833 0.26215872 0.88162363
0.13542436 0.26288038 0.88304543
0.14524435 0.26415136 0.88463324
0.16651514 0.27111191 0.88848519
0.17333713 0.27172142 0.88956147
0.17796089 0.27250603 0.89032739
0.15633559 0.27959239 0.91696036
0.16334143 0.27965987 0.91447079
0.15597527 0.28542244 0.91660231
0.16454242 0.285301 0.91563034
0.1551605 0.29535651 0.91669887
0.1638045 0.2948288 0.91663092
0.1492475 0.30844596 0.91912729
0.15470143 0.30466297 0.91680646
0.1628543 0.30441931 0.91769868
0.14882544 0.31541231 0.91871703
0.15550353 0.31448132 0.91703624
0.16196227 0.31281731 0.9188143
0.148313 0.32479879 0.91847676
0.15482304 0.3245472 0.91776115
0.16006999 0.32179892 0.91937351
0.14751251 0.33480632 0.91865343
0.15376146 0.33439144 0.91848737
0.14660411 0.34484255 0.918984
0.15173569 0.34492922 0.91912675
0.1459844 0.35500839 0.91946173
0.15015264 0.3525686 0.91958886
0.14484811 0.36281201 0.91985351
0.15156393 0.28491247 0.92257661
0.17017467 0.28639153 0.92019624
0.14911884 0.29573563 0.92346156
0.15038201 0.29328489 0.92099369
0.16813272 0.29610011 0.92113417
0.14764073 0.30466938 0.92326444
0.16594501 0.30557004 0.92129153
0.14579251 0.3148438 0.92281169
0.16308881 0.31669956 0.92143023
0.14408654 0.32521719 0.92272931
0.16112511 0.32507485 0.92160976
0.13978657 0.33816576 0.9278726
0.14227298 0.33516306 0.92284298
0.15821755 0.33639434 0.92186522
0.16071738 0.33059481 0.92309183
0.13882527 0.34573561 0.92552829
0.14166968 0.34461647 0.921462
0.15546733 0.34547088 0.92157972
0.13762961 0.35533932 0.92464662
0.14115135 0.35508305 0.92081684
0.15284866 0.35519993 0.92182744
0.13643703 0.36531344 0.92425537
0.14417014 0.36601406 0.92050433
0.15183181 0.36446822 0.92337
0.13536727 0.37540132 0.92387259
0.14453453 0.37516758 0.92139888
0.15101381 0.37294698 0.9248631
0.12983391 0.38698745 0.92852974
0.13481523 0.38518953 0.92329973
0.14429981 0.384835 0.92274404
0.12894471 0.39561716 0.92716199
0.13467208 0.39486608 0.92287308
0.14342715 0.39466226 0.92385441
0.12729552 0.40115204 0.92835242
-0.014370707 0.10903348 0.93693513
-0.0076160361 0.10918516 0.93823844
-0.021874329 0.11612388 0.93657994
-0.015157784 0.11450364 0.93333024
-0.0050518424 0.11454206 0.93364239
0.0047136853 0.11543075 0.93577921
0.011013506 0.11860641 0.93912113
-0.022786904 0.12489 0.93543094
-0.015126122 0.12436211 0.93146241
-0.0050444086 0.12446197 0.93220669
0.0050600055 0.1247405 0.93428886
0.011005224 0.12529208 0.93841499
-0.02362773 0.13499162 0.9352544
-0.015132219 0.13450974 0.93190491
-0.0050490117 0.13468629 0.93312538
0.0048214486 0.13488853 0.93590307
-0.024089575 0.14535362 0.93496066
-0.015141871 0.14469787 0.93254828
-0.0050536906 0.14491904 0.9339726
0.003708102 0.1450917 0.93676198
-0.024456667 0.1551466 0.93468446
-0.015153749 0.15491734 0.93329674
-0.0050582732 0.15517092 0.93482327
0.0026326505 0.15513735 0.93745255
-0.025316617 0.16508393 0.93525708
-0.015169514 0.16519445 0.93427724
-0.0051847422 0.16537145 0.93596083
0.0015997891 0.1647256 0.93854427
-0.031347964 0.17792052 0.93917596
-0.025427887 0.17532972 0.93524975
-0.015188598 0.17553073 0.93546379
-0.0049351077 0.17490143 0.93748927
0.0008474174 0.17202632 0.93937016
-0.031309173 0.18446942 0.93801385
-0.025311884 0.18561201 0.93523914
-0.015410405 0.18526323 0.93614113
-0.0060402551 0.18438567 0.93832219
-0.032779943 0.19552225 0.93731445
-0.025302723 0.19567543 0.93495059
-0.015130433 0.19469142 0.9363597
-0.0072799795 0.19439395 0.93853408
-0.015079762 0.20451239 0.93624139
-0.0084649911 0.20486301 0.93839693
0.13845731 0.3448846 0.93018931
0.13509527 0.35997432 0.93015134
0.13369122 0.36744067 0.93206275
0.13182364 0.37531957 0.93075001
0.13021469 0.38308254 0.93125296
0.12794088 0.39390805 0.93182403
0.12672308 0.40031067 0.93028957
-0.02130332 0.10992513 0.94459718
-0.015803218 0.10795814 0.94397712
-0.0049955575 0.10900291 0.94506168
-0.023762394 0.11444771 0.94446224
0.0049928944 0.11122686 0.94533318
0.011897398 0.11811571 0.94194245
-0.026425179 0.12529621 0.94492131
0.012740565 0.12315872 0.94153571
-0.028165733 0.13570239 0.94612056
0.0093298405 0.13825127 0.94020146
0.011033981 0.13325749 0.94086701
-0.028423632 0.14415725 0.94330531
0.0084906481 0.14433178 0.94114065
-0.029785568 0.15487802 0.94335943
0.0068007242 0.1546953 0.94220263
-0.031601626 0.16654499 0.94677562
0.0045909761 0.16455382 0.94219667
-0.031815808 0.17472774 0.9429698
0.0023824833 0.17483273 0.94263065
-0.033420213 0.18580818 0.94297034
-0.0010914102 0.18570504 0.94119895
0.0011364764 0.18404984 0.94452834
-0.036456916 0.19528197 0.94380277
-0.0025484378 0.19523437 0.94253224
-0.0042477283 0.20513777 0.94225502
-0.022124529 0.10889494 0.95551223
-0.015994668 0.10676845 0.95534831
-0.0051682889 0.1082061 0.95450288
0.0025914398 0.10959908 0.95662671
-0.026142264 0.11548209 0.95535928
0.0068998439 0.11120992 0.95563751
-0.028471097 0.12595551 0.95637822
-0.030260792 0.13746916 0.95841056
-0.028301815 0.13121749 0.9506917
-0.030096844 0.14445853 0.95321822
-0.031938042 0.15536962 0.95685464
-0.031774625 0.16144876 0.95195866
-0.033614218 0.17668292 0.95542753
-0.035359949 0.18628043 0.95602036
-0.04054945 0.19843146 0.95637119
-0.037899073 0.19379739 0.95480561
-0.022670655 0.10724699 0.96655226
-0.01480825 0.10573059 0.96544647
-0.0048471694 0.10750936 0.96443927
0.0026177925 0.10894394 0.9661231
-0.027492102 0.11431702 0.96524554
0.0060850754 0.11040065 0.96362334
-0.030529378 0.12822177 0.96691722
-0.028621912 0.12055896 0.9614442
-0.030422514 0.13298813 0.96353269
-0.032173511 0.14607692 0.96390915
-0.034052815 0.15716536 0.96789396
-0.033930823 0.16530173 0.96442652
-0.034818344 0.17495561 0.96483183
-0.036650997 0.18523744 0.96403444
-0.041670311 0.1971876 0.96634424
-0.039184954 0.19243793 0.96526414
-0.02443596 0.10676482 0.97609615
-0.014374155 0.10502613 0.97562248
-0.0052735112 0.10668671 0.97470695
0.0017593059 0.1081218 0.97442305
-0.030891033 0.11826774 0.97837138
-0.028979048 0.11327807 0.97344083
-0.030703489 0.12281033 0.97243154
-0.032577977 0.13646962 0.97602683
-0.033980381 0.14524697 0.97579253
-0.034990855 0.15455346 0.9744752
-0.036109135 0.16557105 0.97627592
-0.036615316 0.17516005 0.97406441
-0.038569931 0.18480225 0.97483355
-0.042944387 0.19577613 0.97647434
-0.039430305 0.19014171 0.97130811
-0.024875253 0.1057081 0.9846797
-0.01600495 0.10405525 0.98586512
-0.0053290501 0.10604283 0.98506188
0.00088818197 0.10747002 0.98455805
-0.031105816 0.11464304 0.985174
-0.029208664 0.11063888 0.98115391
-0.032892913 0.12623471 0.98546225
-0.034052406 0.13502082 0.98465747
-0.035219703 0.14413215 0.98415524
-0.036383264 0.15351418 0.9836874
-0.038326558 0.16756396 0.98803139
-0.0401804 0.17947245 0.98978555
-0.038101949 0.17367078 0.98224115
-0.040968843 0.18524943 0.98726839
-0.039915282 0.18449649 0.98325479
-0.043866973 0.19446686 0.98432982
-0.031490546 0.10886732 0.99735904
-0.025989456 0.10484857 0.993397
-0.01525976 0.10357662 0.9949528
-0.0059210146 0.10534398 0.99468124
0.0017950737 0.10778424 0.99567789
-0.032718364 0.11457258 0.99556106
-0.034310468 0.12484217 0.99555397
-0.035725333 0.13446157 0.99495488
-0.036760729 0.14434639 0.99389297
-0.038685963 0.15563938 0.99729663
-0.040569559 0.16858906 0.99937195
-0.03848768 0.16200477 0.99218494
-0.04040293 0.17417292 0.99526721
-0.042756356 0.18552682 0.9962877
-0.031753164 0.10735885 1.0057453
-0.025574224 0.10274295 1.003477
-0.015413526 0.10281052 1.0050108
-0.0054366793 0.10479194 1.0043033
-0.034786213 0.11585293 1.0058755
-0.036078747 0.12491429 1.0048072
-0.037481673 0.13489369 1.0035442
-0.038957816 0.14495376 1.0043048
-0.040874522 0.15531981 1.0068843
-0.038818981 0.1507621 1.0007257
-0.041289181 0.16475937 1.0042813
-0.042856373 0.17549764 1.0054095
-0.04498117 0.18549356 1.0058471
-0.021899266 0.10128707 1.0115105
-0.010952532 0.10314462 1.0118299
-0.0027361079 0.10488413 1.0110004
-0.04104789 0.15050893 1.0111549
-0.042887341 0.16333614 1.011511
-0.044766363 0.17632239 1.0127332
-0.046567611 0.18626919 1.0121694
-0.048428643 0.19097333 1.0128982
-0.34856766 0.37495354 1.5394046
-0.3476308 0.37822241 1.5414125
-0.35149831 0.38762066 1.5400758
-0.348068 0.38426861 1.5433531
-0.35148764 0.39546159 1.542473
-0.34961003 0.39278942 1.544008
-0.35311747 0.40444565 1.5436947
-0.35530397 0.41521958 1.5445509
-0.35701618 0.42535484 1.5459288
-0.36071873 0.43453521 1.5438613
-0.35853782 0.4338738 1.5464691
-0.36222947 0.44532904 1.5455577
-0.3590759 0.44011247 1.5487899
-0.36381117 0.4547154 1.5468655
-0.36597145 0.46423545 1.5472316
-0.36852875 0.47462153 1.5474187
-0.37137786 0.48586383 1.5476567
-0.37363702 0.49655393 1.5483391
-0.37573126 0.50423491 1.5483332
-0.37797451 0.51421332 1.5489416
-0.38157308 0.52833223 1.5493677
-0.37892035 0.52153981 1.5499512
-0.35949838 0.44342798 1.5506122
-0.36253855 0.45772243 1.5516502
-0.36513513 0.46866003 1.5507882
-0.36672294 0.47589833 1.5515914
-0.36840087 0.48466513 1.5527596
-0.37091139 0.49408349 1.5515426
-0.37317821 0.50410581 1.5522431
-0.37567884 0.51519352 1.5527409
-0.37809157 0.52607989 1.5534468
-0.38147652 0.53616935 1.5518224
-0.37962174 0.53231138 1.5528202
-0.38286349 0.54399872 1.5531989
-0.38521037 0.55531102 1.5540286
-0.3906163 0.56982374 1.5519779
-0.38709775 0.56522256 1.5547224
-0.39091644 0.57586688 1.5531702
-0.38864803 0.57385325 1.5553068
-0.39238051 0.585347 1.5545336
-0.38938481 0.58196926 1.5582552
-0.39397886 0.59487963 1.5557848
-0.38707894 0.57287681 1.5602932
-0.39020181 0.5874157 1.5615247
-0.39264378 0.5981133 1.5600334
-0.39332959 0.60197753 1.5627582
0.012265189 0.44803786 1.5995303
0.011256029 0.4539957 1.599677
0.0057802727 0.44806394 1.6022042
0.018779906 0.44927311 1.6013616
0.0043349969 0.45554337 1.6030947
0.016720224 0.4555338 1.6016047
0.021727625 0.45048609 1.6056851
-0.0014505667 0.46853304 1.6079668
0.0045959628 0.46490809 1.6018405
0.01367775 0.46458468 1.6020489
-0.0014483717 0.47506434 1.6055336
0.004044916 0.47482967 1.6018064
0.013020439 0.47491318 1.6033891
-0.0031067252 0.4845756 1.6062009
0.0040723477 0.48516873 1.6019363
0.011579766 0.48485005 1.6043572
-0.0033797661 0.49525145 1.6047156
0.0046273796 0.49536315 1.6027855
0.010867754 0.49333379 1.6060668
-0.0046354551 0.50472325 1.6049678
0.004342542 0.50500798 1.6040272
0.010153025 0.50185025 1.6078178
-0.01015664 0.51508588 1.6083902
-0.0043429914 0.51524478 1.6043645
0.0037029609 0.51442719 1.6053264
-0.011119277 0.52594078 1.6075636
-0.004342888 0.5254612 1.6046239
0.0028997015 0.52469373 1.6067066
-0.011598212 0.53492558 1.6069657
-0.0043439739 0.53436512 1.60528
0.0014505871 0.53526765 1.6079893
-0.012469241 0.54509443 1.6070278
-0.0046097748 0.54447883 1.6063765
-0.013340225 0.5547263 1.6072136
-0.0051784017 0.55462897 1.607651
-0.014214931 0.56534714 1.6077291
-0.0065289121 0.56370789 1.6084313
-0.014843225 0.57553208 1.6082555
-0.0072603477 0.57211572 1.6096327
-0.021782732 0.58522916 1.6097574
-0.015382135 0.58454132 1.6086632
-0.021778693 0.59528428 1.6094592
-0.016935848 0.59470117 1.6091897
-0.021781581 0.60552806 1.6096725
-0.018876944 0.60406232 1.6096361
-0.0072623957 0.49529541 1.6100868
-0.01017611 0.50880444 1.6114733
0.01018278 0.50768435 1.6125296
0.0072641494 0.51866025 1.6104755
-0.01308318 0.52332652 1.6114254
-0.01600595 0.5369243 1.6129769
0.0043608812 0.53202862 1.6113592
-0.017455284 0.54542279 1.6122725
0.0014533282 0.54354548 1.611028
-0.018897163 0.55528408 1.6113601
-0.0014532753 0.55515188 1.6109694
-0.021830505 0.56613636 1.6132879
-0.0033922058 0.56473964 1.6120733
-0.022791794 0.57604653 1.6125102
-0.005816089 0.57444263 1.6120946
-0.024730284 0.58479702 1.6125737
-0.010172235 0.58708364 1.6108596
-0.0072777271 0.5836758 1.6134857
-0.026405007 0.59438401 1.6132144
-0.011343818 0.59546977 1.6123188
-0.030641144 0.60552484 1.6174283
-0.026166199 0.60471004 1.6113638
-0.014542183 0.60509348 1.6123915
-0.031176995 0.61506164 1.6148789
-0.024702294 0.6146335 1.610702
-0.016366668 0.61439216 1.6129324
-0.032037679 0.62470299 1.6142004
-0.024709256 0.62500143 1.6112081
-0.017477663 0.62489253 1.6146795
-0.033769701 0.63547462 1.6146582
-0.024724178 0.63558209 1.6122385
-0.018943194 0.63386971 1.6152853
-0.034561131 0.64546114 1.6144599
-0.024745284 0.64488477 1.6136794
-0.018976433 0.64081955 1.6181195
-0.034657303 0.65494549 1.6140813
-0.025853842 0.65440065 1.6147127
-0.042339891 0.66575658 1.6184195
-0.035288997 0.66509068 1.6143464
-0.026253423 0.66511607 1.6168581
-0.034959923 0.67444354 1.6147445
-0.027738124 0.67593575 1.6183143
-0.039493319 0.64505756 1.6214339
-0.042412318 0.6595847 1.621188
-0.021923376 0.65623969 1.6201512
